# .PCD v0.7 - Point Cloud Data file format
VERSION 0.7
FIELDS x y z
SIZE 4 4 4
TYPE F F F
COUNT 1 1 1
WIDTH 1511
HEIGHT 1
VIEWPOINT 0 0 0 1 0 0 0
POINTS 1511
DATA ascii
3.6712468 3.5396349 -1.598212
4.1384473 3.5450969 -1.5530851
4.4794517 3.5456471 -1.5309526
4.8836651 3.5485594 -1.6059612
5.2788296 3.5499594 -1.6120977
5.6511612 3.5476294 -1.6317012
6.1082063 3.5562727 -1.5934004
6.4790702 3.5568244 -1.643157
6.8221855 3.5601187 -1.6098479
7.3379269 3.5637043 -1.6101887
7.5794783 3.5644994 -1.6585382
-3.4566979 3.514158 -1.2932566
-3.0887713 3.5127747 -1.4373535
-2.7112417 3.509547 -1.56701
-2.2809634 3.5146723 -1.5062006
-1.9055948 3.5195301 -1.4538136
-1.4858756 3.5238276 -1.3959252
-1.0776343 3.5224776 -1.4889152
-0.75535774 3.5260158 -1.4395957
-0.30118465 3.5283496 -1.5083883
0.16257095 3.5281477 -1.5618906
0.49214315 3.5345738 -1.5063682
0.85870361 3.5378745 -1.4443518
1.3514936 3.5367129 -1.5880084
1.7060301 3.5414972 -1.5252298
2.148149 3.5419226 -1.551007
2.4931319 3.5455945 -1.5928715
2.9060929 3.5485768 -1.5253785
3.3214378 3.5522637 -1.5589867
3.6461453 3.5578146 -1.5188938
4.0911512 3.5551071 -1.5602646
4.498126 3.5589294 -1.535296
4.9093342 3.5591669 -1.6104876
5.2721653 3.5624099 -1.6173023
5.6931419 3.5663154 -1.557016
6.0866814 3.5668173 -1.5951337
6.5542011 3.5737071 -1.572203
6.8764625 3.5710263 -1.623342
7.2815671 3.5745556 -1.6039433
7.5585852 3.5753617 -1.6577871
7.3289523 -7.4363132 -0.96484286
7.3217955 -7.0141559 -0.92156506
7.3129845 -6.520627 -1.0101796
7.308279 -6.204577 -0.97373754
7.3007116 -5.8099337 -0.92642802
7.2985487 -5.4819021 -0.88610339
7.2868047 -4.9711032 -1.0498773
7.2812929 -4.6168113 -0.99632168
7.2734194 -4.1601233 -1.0234959
7.4114914 -3.9081712 -1.0009307
7.6884336 -3.8829613 -1.0336099
8.1408348 -3.8657002 -0.99554735
8.5449972 -3.8483815 -1.0520464
8.9333553 -3.833586 -1.1097627
9.2364864 -3.8188889 -1.0404041
12.338493 -3.7544074 -1.2111685
12.615929 -3.6849718 -1.0758226
12.945031 -3.6606565 -1.1175641
13.3428 -3.6428766 -0.98333812
13.72641 -3.6254013 -1.0236176
14.080318 -3.6143863 -1.061057
4.0273862 -0.57367921 -1.0404488
5.2005582 -0.58123213 -0.97484475
5.6188464 -0.44126439 -0.95612192
4.2517986 -0.13162407 -1.089017
4.3525825 -0.20714544 -1.1050274
5.7325435 -0.31418821 -1.0524561
5.923264 -0.073538944 -1.29023
4.2541561 0.13364428 -1.1092005
4.3533587 0.24862164 -1.1115816
5.7422018 0.20176783 -1.0481049
5.9241443 0.014380327 -1.2957329
4.0175314 0.42759016 -1.0484871
5.0784607 0.46482253 -0.98285967
5.2069058 0.46486035 -0.99294424
-2.0436263 3.5190969 -1.1438931
-1.1520081 3.524744 -1.0532081
-0.49607658 3.5318353 -0.98905432
-0.33512306 3.5305872 -1.1055139
0.10450363 3.5331843 -1.0590402
0.4726181 3.5345354 -1.1400614
1.0246954 3.5359447 -1.1871009
1.2889566 3.5368655 -1.1543717
1.751838 3.5393958 -1.0978795
2.0580842 3.5432155 -1.0628011
2.474328 3.5464547 -1.1119448
2.9124846 3.5470088 -1.1565105
3.3180697 3.5520062 -1.1169747
3.6916409 3.552002 -1.1704599
4.0971441 3.5556438 -1.1443012
4.4498506 3.5577073 -1.1292171
4.8858361 3.5601428 -1.2012985
5.3200793 3.560786 -1.2084768
5.7359505 3.565064 -1.1514581
6.1018915 3.5670786 -1.1797792
6.4868832 3.5693903 -1.2189388
6.8735981 3.5738993 -1.1798832
7.3301134 3.5744841 -1.2412202
7.5825014 3.5757957 -1.278725
-3.4881568 3.5247872 -0.91819614
-3.0008016 3.5249133 -1.0629693
-2.6857233 3.5245297 -1.0368072
-2.2816396 3.5228431 -1.1690761
-1.8727999 3.5287545 -1.1270643
-1.4939384 3.5310729 -1.0884166
-1.0581565 3.5364728 -1.0449338
-0.63831902 3.5350051 -1.1416565
-0.2888279 3.5400045 -1.103794
0.099204063 3.5436141 -1.0607541
0.44211769 3.5484669 -1.023163
0.92627907 3.5427723 -1.2007514
1.3127813 3.5493693 -1.1526852
1.7055237 3.5524604 -1.1048307
2.1718457 3.5535893 -1.1492761
2.4463546 3.5584047 -1.1182199
2.8966238 3.5594563 -1.160967
3.2998261 3.5632739 -1.1214885
3.7106225 3.5649476 -1.1722625
4.1022472 3.5680406 -1.1471674
4.480782 3.5727799 -1.1327783
4.904603 3.5735471 -1.2055596
5.2877703 3.5745444 -1.2119092
5.7303004 3.578608 -1.1550326
6.0992756 3.5798926 -1.1829509
6.5046492 3.5810909 -1.2235301
6.9042172 3.5838084 -1.1859866
7.2846737 3.5855503 -1.237159
7.5677524 3.5874617 -1.2792492
7.3406916 -7.6178398 -0.66283804
7.3365803 -7.3994508 -0.49310619
7.3301044 -7.0401807 -0.47692177
7.3195534 -6.5898843 -0.59748322
7.313333 -6.1873298 -0.57230544
7.3083658 -5.801755 -0.54846525
7.2997847 -5.3822923 -0.63967162
7.2942071 -5.0002861 -0.6101144
7.2890129 -4.5963478 -0.5786944
7.281908 -4.1985989 -0.54809272
7.3788986 -3.8974707 -0.62460077
7.7523942 -3.8695064 -0.56077808
8.152936 -3.8544855 -0.59432328
8.552947 -3.8371334 -0.63020408
8.9523563 -3.82022 -0.66809833
9.244812 -3.8112521 -0.69716007
12.350891 -3.7484744 -0.88165081
12.481071 -3.6912827 -0.72809094
12.957428 -3.6472833 -0.59432399
13.350393 -3.6331403 -0.62105274
13.733519 -3.6149113 -0.64731967
14.092894 -3.6057045 -0.67203933
4.0588818 -0.55640584 -0.64556187
5.7352662 -0.32420743 -0.86630797
4.0492964 0.43418854 -0.68871093
-2.5543041 3.5344377 -0.51177639
-2.4277716 3.5203681 -0.84435612
-1.8180532 3.5326946 -0.64629239
-1.4602261 3.5375521 -0.62935436
-1.1958075 3.5354879 -0.76301974
-0.60857916 3.5387762 -0.72559738
-0.25373888 3.5414922 -0.70366395
0.068233013 3.5465341 -0.68446195
0.58741474 3.5454862 -0.77068287
0.97065973 3.5477304 -0.74573767
1.204572 3.5493782 -0.72794431
1.7138915 3.5535514 -0.69517022
2.1126363 3.5549753 -0.67178583
2.5679305 3.5568082 -0.73789489
2.8925703 3.5590975 -0.71931881
3.3290815 3.5604599 -0.78122002
3.714932 3.565439 -0.76437336
4.1263714 3.5642979 -0.75079858
4.5288606 3.568063 -0.82061398
4.894268 3.5694206 -0.8203246
5.2827177 3.5716848 -0.8265928
5.6767054 3.5740809 -0.84081352
6.0759115 3.577961 -0.78527892
6.4814496 3.579886 -0.81217176
6.9069395 3.583581 -0.84705186
7.3240919 3.5861385 -0.79932863
7.5858593 3.585439 -0.82397008
-3.4807944 3.5351255 -0.54187226
-3.0565467 3.5386896 -0.52818435
-2.6782904 3.5387053 -0.51597154
-2.2612834 3.5385444 -0.66823095
-1.8998208 3.5419071 -0.65080893
-1.4904923 3.5444384 -0.63105679
-1.1377201 3.5439389 -0.61234242
-0.6976943 3.5476499 -0.73192459
-0.29115868 3.5509851 -0.70675111
0.11164045 3.5526483 -0.68240476
0.5356307 3.5520825 -0.77555096
0.88927078 3.5579524 -0.75085986
1.3167803 3.5609741 -0.72208548
1.7075384 3.5629864 -0.69747823
2.094193 3.5672131 -0.67496639
2.5157988 3.5691197 -0.7433269
2.8845842 3.5711248 -0.72190672
3.3023815 3.5733562 -0.78474021
3.7109976 3.5762324 -0.76608169
4.1051621 3.5802281 -0.75403768
4.5422425 3.5805626 -0.82293445
4.9089265 3.5822947 -0.82280177
5.31037 3.5851114 -0.830185
5.666708 3.5863099 -0.84276289
6.1102457 3.5912557 -0.78990871
6.5121918 3.5933702 -0.8170318
6.9128356 3.5947433 -0.84963906
7.3330517 3.5976417 -0.80167854
7.5748215 3.6003115 -0.8245945
7.3517585 -7.5989037 -0.02563072
7.3458147 -7.3684831 -0.028763153
7.3333158 -6.9317546 -0.17945883
7.3280277 -6.5811381 -0.17892787
7.3223748 -6.1818652 -0.17689613
7.315846 -5.7932954 -0.17493507
7.3100719 -5.3981166 -0.17309034
7.3025131 -4.9993167 -0.17138287
7.2956519 -4.5927238 -0.1696822
7.2883234 -4.1871142 -0.16828224
7.3986406 -3.8863106 -0.17138594
7.7623997 -3.8573663 -0.18458831
8.1628742 -3.8411243 -0.19999826
8.5595417 -3.824584 -0.21596685
8.9610128 -3.8088896 -0.23269668
9.2502556 -3.7960899 -0.24512506
12.356216 -3.7406816 -0.2266354
12.502329 -3.6757472 -0.23254839
12.957415 -3.6346498 -0.24754339
13.357132 -3.6231892 -0.26024127
13.737312 -3.6031902 -0.27256879
14.095833 -3.5931711 -0.28403121
4.1010714 -0.53650892 -0.35528916
4.0108604 -0.2186041 -0.35966876
4.0756183 0.12461147 -0.34825256
4.1036639 0.42998812 -0.37208861
-3.3436894 3.5383554 -0.16758084
-2.7994671 3.5424178 -0.17011942
-2.3326445 3.542326 -0.17224181
-1.6480603 3.5426095 -0.17549998
-0.98926735 3.5483925 -0.32047001
-0.7200942 3.5492837 -0.3170625
-0.36207724 3.5474207 -0.44600001
0.11460018 3.5529716 -0.4332099
0.48422003 3.5549991 -0.42362046
0.87333536 3.5607698 -0.30229655
1.3540528 3.5634301 -0.29988945
1.7000406 3.5635958 -0.2957274
2.0386896 3.5658042 -0.29516366
2.5426083 3.5703297 -0.29239237
3.0275865 3.5696237 -0.37557465
3.2837262 3.5711961 -0.37461776
3.720484 3.5745809 -0.37189281
4.1229835 3.5758338 -0.37225974
4.5328741 3.58002 -0.37480038
4.9044495 3.5813968 -0.37926477
5.280582 3.5833998 -0.38586688
5.682622 3.5872967 -0.39555478
6.1274729 3.5895283 -0.4081983
6.5516887 3.5907216 -0.42368519
6.9139185 3.5947981 -0.43866837
7.2853584 3.5957763 -0.45422608
7.5946131 3.6010149 -0.38128746
-3.4954286 3.5451806 -0.16715674
-3.0430913 3.5457082 -0.16914865
-2.6233053 3.5494409 -0.17115548
-2.239254 3.5557232 -0.17313974
-1.8864856 3.5574133 -0.17486575
-1.4534607 3.5569787 -0.17696369
-1.065002 3.5554607 -0.3228156
-0.66690302 3.557451 -0.31831062
-0.25817394 3.5596302 -0.313281
0.11527443 3.5629978 -0.30972934
0.51672077 3.5665057 -0.30574748
0.93121099 3.5691102 -0.30202574
1.3194444 3.5720119 -0.29867545
1.7338295 3.5754728 -0.2966131
2.1318717 3.5821092 -0.29462177
2.5185642 3.582104 -0.29345793
2.9463081 3.5817552 -0.37684503
3.3244722 3.5849578 -0.37449378
3.7142763 3.5880399 -0.373164
4.1155682 3.5897012 -0.37329215
4.5099716 3.5931339 -0.37582114
4.9186497 3.594872 -0.38058096
5.3177476 3.5971234 -0.38775697
5.7170691 3.6005023 -0.39747334
6.1088386 3.602649 -0.40930101
6.5084453 3.6045315 -0.42315179
6.9135427 3.6061268 -0.43935809
7.2634177 3.6067679 -0.45390129
7.57688 3.6132536 -0.38178068
7.3525591 -7.4057288 0.28219861
7.3419142 -6.9779005 0.25978047
7.3348827 -6.5676403 0.23829889
7.3297176 -6.1716218 0.21760055
7.3209505 -5.7032881 0.31487727
7.3168979 -5.3812795 0.29351074
7.3097572 -4.9858217 0.26561517
7.3024302 -4.5802622 0.2373324
7.295022 -4.1765227 0.20929876
7.4027395 -3.8721313 0.18902141
7.7656622 -3.8482065 0.18985209
8.1611824 -3.8312352 0.19243994
8.5625296 -3.8139393 0.19586328
8.9672699 -3.7951961 0.20029533
9.2594585 -3.7845767 0.20400822
12.366232 -3.7617702 0.10075244
12.506064 -3.6628234 0.097522877
12.965711 -3.6259058 0.098478012
13.36227 -3.6124079 0.1001352
13.721542 -3.5989282 0.10166196
7.3567963 -7.3928123 0.59279317
7.3498411 -6.9655499 0.70213288
7.3425379 -6.5563707 0.65706277
7.3369098 -6.1608639 0.61333245
7.3281593 -5.7963939 0.57306474
7.3255749 -5.3773308 0.64587718
7.3161697 -4.9183168 0.69681001
7.3091583 -4.567533 0.64711434
7.3020177 -4.1662412 0.58982509
7.4105959 -3.8642244 0.55229074
7.7760415 -3.8366082 0.56684053
8.1778488 -3.8201725 0.58766121
8.575345 -3.802464 0.61083275
8.9493065 -3.7868335 0.63460588
9.2660942 -3.7756202 0.54269326
12.368778 -3.7508388 0.42805886
12.512766 -3.6539001 0.42834079
12.969326 -3.6149673 0.44508272
13.367094 -3.6015532 0.46112144
13.721481 -3.5855932 0.47537929
7.3784456 -7.5761557 1.2547591
7.3630242 -7.3516617 1.0581303
7.3575544 -6.9522018 1.148454
7.349402 -6.5426373 1.0791405
7.3433113 -6.1476216 1.0126481
7.3382444 -5.7585411 1.0755954
7.3301997 -5.3630185 1.0019915
7.3235831 -5.0131173 0.9365806
7.3154445 -4.5602164 0.95968944
7.3061953 -4.1561852 0.87910736
7.4149404 -3.8556767 0.82882541
7.7827425 -3.8307219 0.8547157
8.1791935 -3.8127718 0.88867599
8.5788517 -3.7970245 0.92738765
9.0542774 -3.7748685 0.86381787
9.2401237 -3.7655907 0.88220936
12.372285 -3.6704152 0.75153279
12.464787 -3.6596167 0.92373663
12.985176 -3.6095855 0.79466707
13.376698 -3.5927124 0.82440543
13.72751 -3.5746877 0.85114962
7.3715138 -7.2369027 1.5120771
7.3642983 -6.9479632 1.4513963
7.3553214 -6.5369787 1.3654271
7.3469591 -6.1366987 1.2821088
12.631738 -3.6173697 1.1068288
12.983764 -3.5961516 1.1453874
13.384222 -3.5828366 1.190751
13.735701 -3.564626 1.2304113
4.2837076 -9.3796616 -2.2879591
4.6767902 -9.4435263 -2.290827
5.0805101 -9.5024023 -2.296735
5.4872141 -9.5333605 -2.3007462
5.8939123 -9.5631752 -2.3090434
6.2871513 -9.5672817 -2.3156359
6.6804533 -9.5596266 -2.3237929
7.0868483 -9.5244808 -2.3303599
7.390882 -9.4918509 -2.3366542
3.0817924 -9.0417652 -2.2748716
3.4697964 -9.1687374 -2.2784262
3.8786929 -9.2756004 -2.2809904
4.150835 -9.3267937 -2.2807491
2.2615187 -8.7008581 -2.267437
2.6580474 -8.8846846 -2.2723596
2.8778613 -8.9631376 -2.2721448
1.5113831 -8.3137035 -2.2643983
1.8525753 -8.5083208 -2.2671366
5.0764074 -8.1382008 -2.3350534
5.4403601 -8.1790218 -2.3397815
5.8389764 -8.2082195 -2.3463576
6.2386599 -8.2131758 -2.3522351
6.6380043 -8.201416 -2.3594565
7.0365944 -8.1726894 -2.3679423
7.272347 -8.1459408 -2.3728647
0.79933214 -7.9114413 -2.2730031
1.0428977 -8.0460358 -2.2676036
1.3048606 -8.1765757 -2.2609797
3.5485687 -7.7800837 -2.3208375
3.8354118 -7.868732 -2.3223269
4.2346611 -7.9728098 -2.3244898
4.6366978 -8.0639925 -2.3294551
4.8996277 -8.1078386 -2.3315682
7.3191404 -7.9316339 -2.3174036
0.32239389 -7.5252643 -2.2685201
0.59876394 -7.7396917 -2.2683177
2.6902206 -7.4336486 -2.3170886
3.0166793 -7.5621295 -2.314239
3.3530407 -7.6961231 -2.3159509
12.314384 -7.3223667 -2.4813881
12.496071 -7.1771154 -2.4910266
-0.10908556 -7.1774678 -2.2735384
0.11633015 -7.3629093 -2.2704556
1.9464345 -7.0446305 -2.3188519
2.2147808 -7.1812487 -2.3145983
2.4988968 -7.3402405 -2.3166487
4.3781209 -6.949367 -2.3590605
4.6131048 -6.9994626 -2.3593087
5.0087848 -7.0778227 -2.3637278
5.4191427 -7.134059 -2.368731
5.8208146 -7.1702561 -2.375694
6.2131996 -7.1764464 -2.3808947
6.6164136 -7.1715255 -2.3905072
7.0178518 -7.1319108 -2.3968937
7.265008 -7.0612693 -2.3899798
12.696134 -6.9863725 -2.4984212
12.912764 -6.7920461 -2.510613
-0.50854826 -6.7931499 -2.2758942
-0.30904627 -6.9852786 -2.2736087
1.4695983 -6.699091 -2.312829
1.7524052 -6.8830214 -2.3102446
3.4524508 -6.6233835 -2.3490071
3.7972713 -6.7599845 -2.3520381
4.1704788 -6.8815956 -2.3545446
11.407639 -6.343534 -2.4978805
13.096352 -6.5849643 -2.5164037
13.29948 -6.3768415 -2.5282924
-0.905375 -6.3852983 -2.2827094
-0.72209311 -6.5735979 -2.278425
1.0303636 -6.3675485 -2.3158538
1.2561355 -6.5461154 -2.3144929
2.696053 -6.2590961 -2.3484244
2.9962454 -6.4145293 -2.3478336
3.253294 -6.5347209 -2.3474679
4.6453376 -6.1607509 -2.3835325
4.9864511 -6.2385631 -2.3876669
5.3955746 -6.3052497 -2.3927264
5.7889633 -6.34271 -2.3980064
6.1838651 -6.3552604 -2.4040587
6.5882311 -6.3420839 -2.4108455
6.9913287 -6.3080301 -2.4202178
7.2482443 -6.2284951 -2.4104466
11.504008 -6.2448092 -2.4983921
11.723696 -6.0604234 -2.5101662
13.487959 -6.1552296 -2.5374336
13.642173 -5.962008 -2.5450063
-1.2595129 -5.9398904 -2.2854187
-1.1100969 -6.1378326 -2.2846935
0.61687326 -6.0044026 -2.319212
0.84990549 -6.1939344 -2.3126795
2.187489 -5.9400029 -2.3485048
2.4939444 -6.1290708 -2.345365
3.5533626 -5.7636657 -2.3732479
3.7809138 -5.8687239 -2.376318
4.1874418 -6.0198536 -2.3780656
4.4578242 -6.109858 -2.3816862
5.9018426 -5.690083 -2.4235008
6.1980877 -5.6868143 -2.4239657
6.5056286 -5.6799021 -2.4298439
6.789165 -5.6669469 -2.4389255
10.728531 -5.5591598 -2.5077794
11.92137 -5.869668 -2.5183914
12.129624 -5.6545405 -2.5279684
13.835436 -5.7046351 -2.5551875
13.987288 -5.5059423 -2.5652661
-1.3277235 -5.8636589 -2.2882001
0.36902189 -5.7568808 -2.3207183
0.40842009 -5.805913 -2.3219151
1.9250283 -5.7443299 -2.3470972
1.9945917 -5.778718 -2.3424523
3.1301708 -5.5539422 -2.3743861
3.3523979 -5.6696954 -2.3742199
4.3039742 -5.3564944 -2.4009168
4.558526 -5.4371758 -2.4018652
4.9663868 -5.5442705 -2.405164
5.3713441 -5.626833 -2.4125533
5.7616963 -5.6667848 -2.4159944
6.0663123 -5.6742873 -2.4172421
6.6762805 -5.660439 -2.4298339
6.9928293 -5.6282687 -2.4380383
7.2296124 -5.571393 -2.4355721
10.744406 -5.5268779 -2.5038462
10.962071 -5.3464231 -2.5155044
11.164797 -5.14889 -2.5222983
12.31722 -5.4318786 -2.5340383
12.482084 -5.2527094 -2.5450876
14.096316 -5.2702122 -2.5630608
4.1749496 -5.3078418 -2.3999619
5.4859223 -5.0762033 -2.4284678
5.7477031 -5.1061172 -2.432312
6.1501288 -5.1270728 -2.4388533
6.5528517 -5.1152368 -2.4460113
6.953311 -5.0715046 -2.4541099
7.2201257 -5.0063782 -2.451494
10.269722 -4.8664141 -2.5180497
10.367155 -4.7876773 -2.523566
11.368076 -4.9521837 -2.5344677
11.558817 -4.7430806 -2.5434458
12.668446 -5.0130768 -2.5541496
12.823305 -4.8079662 -2.5635157
14.126339 -5.0310321 -2.5430005
5.4984856 -4.5973759 -2.4416003
5.7420206 -4.6305823 -2.446537
6.1417274 -4.6490068 -2.4502916
6.541616 -4.6397114 -2.4588275
6.9458847 -4.5923777 -2.4673786
7.20855 -4.5457897 -2.4747477
9.7816429 -4.3970919 -2.521277
10.561878 -4.6009932 -2.5308037
10.766393 -4.3969736 -2.5401819
11.73228 -4.5333447 -2.5523062
13.004692 -4.5363426 -2.5733294
-0.78494883 -4.2809358 -2.3459699
0.51600027 -4.3384247 -2.3642702
1.5033293 -4.2372432 -2.3819695
1.5918088 -4.3393168 -2.3818207
2.4923649 -4.2806721 -2.398865
3.2773752 -4.187387 -2.4135518
5.4852023 -4.1870227 -2.4564996
5.726603 -4.2175999 -2.4580646
6.128571 -4.2444506 -2.4640272
6.5310955 -4.2312131 -2.4705665
6.9303002 -4.1796327 -2.4782572
7.224875 -4.2670231 -2.4487572
9.8619528 -4.3322372 -2.5255716
10.090221 -4.1231675 -2.535464
10.969942 -4.1657166 -2.5495222
11.155411 -3.9567258 -2.5622733
11.904449 -4.2951508 -2.5582991
12.064711 -4.0890594 -2.571177
14.879599 -3.8820896 -2.6228044
-2.4013219 -4.1129799 -2.3204198
-0.83132076 -4.177434 -2.3442574
0.28789806 -4.0183616 -2.3697159
0.37923193 -4.1410418 -2.3657708
1.3572254 -4.0703311 -2.3855197
2.2164569 -4.0208063 -2.4017611
2.3592081 -4.1582251 -2.3994734
3.0084655 -3.9901328 -2.4178627
3.1822686 -4.12042 -2.4147961
3.7860551 -3.9579134 -2.4298005
3.9813395 -4.0834594 -2.4339836
4.4750638 -3.8664539 -2.4444933
5.750618 -3.8600352 -2.4678593
6.1179552 -3.8866904 -2.473839
6.5208821 -3.8730211 -2.4800322
6.9204259 -3.8193831 -2.4888034
7.35745 -3.8374858 -2.4627419
7.6283503 -3.7887869 -2.4935095
8.1246138 -3.7766218 -2.5110946
8.4682369 -3.7724061 -2.4954693
8.9194174 -3.7617271 -2.5253205
9.2956419 -3.7626302 -2.5292122
9.6856766 -3.735013 -2.5385554
10.290245 -3.9219928 -2.5442963
10.479113 -3.7102187 -2.5540006
11.310118 -3.7355354 -2.5683968
12.244512 -3.8034947 -2.5804327
12.366644 -3.610333 -2.5902045
13.377213 -3.6916819 -2.5731781
13.555659 -3.5599957 -2.6113923
14.992933 -3.6303284 -2.6339087
-2.6235948 -3.5733669 -2.329092
-1.1847692 -3.5292399 -2.3600206
0.91073895 -3.4532931 -2.3941815
1.7089939 -3.4350283 -2.4102564
2.4214768 -3.4155593 -2.4202807
3.0620124 -3.403353 -2.4342816
3.6599784 -3.3758113 -2.4449575
4.2697759 -3.3603981 -2.4570811
4.3195033 -3.3913844 -2.4581923
4.9629273 -3.3418374 -2.4677143
5.8577361 -3.5570929 -2.4793122
6.126018 -3.4305813 -2.4869814
6.4825492 -3.4189196 -2.4924474
6.9142485 -3.4996221 -2.4982669
7.3132463 -3.3945868 -2.509639
7.6758037 -3.422008 -2.5133514
8.11024 -3.3804455 -2.5235724
8.4513683 -3.3777184 -2.5290186
8.8448277 -3.3046446 -2.5371614
9.3245878 -3.426579 -2.5420589
9.6978827 -3.3983943 -2.5512652
10.043078 -3.3596654 -2.5557289
10.662988 -3.4830301 -2.5633011
10.792063 -3.3111653 -2.5716817
11.48247 -3.4801707 -2.577601
11.606526 -3.2739854 -2.5848088
12.528579 -3.3019569 -2.6006474
13.688393 -3.2641613 -2.6222575
15.072622 -3.3963115 -2.6389623
15.162781 -3.1973543 -2.6508751
-2.639771 -3.5013995 -2.3279383
-1.3331685 -3.1705325 -2.3650789
-1.2492476 -3.3660288 -2.3609366
0.81046772 -3.2998435 -2.3987911
1.4605026 -3.0748601 -2.4164267
1.5952005 -3.271642 -2.411885
2.1875262 -3.1361806 -2.42644
2.516829 -3.1686945 -2.4310582
2.859314 -3.1978695 -2.4371901
3.3513536 -3.1069841 -2.4457848
3.6786973 -3.1609817 -2.4508541
4.1486106 -3.0967424 -2.4631982
4.4883204 -3.1171436 -2.4665952
4.8466649 -3.1418145 -2.4723728
5.3432703 -3.0375209 -2.4839532
5.5626116 -2.9638815 -2.4881151
6.1048684 -3.1594977 -2.4921746
6.5618706 -3.141084 -2.5009406
6.897872 -3.0850508 -2.509994
7.2361913 -2.9877214 -2.5183721
7.7491751 -3.0570714 -2.5254309
8.0931139 -3.0178578 -2.5314717
8.4389009 -2.9712715 -2.5401051
8.883522 -3.0350933 -2.5445669
11.79566 -2.9279997 -2.5976455
11.905546 -2.7353871 -2.6102371
12.663743 -3.0133905 -2.6095717
12.749319 -2.8186986 -2.6169076
13.832161 -2.9034982 -2.6350298
13.906624 -2.7157054 -2.6436608
15.281799 -2.8231423 -2.6629629
-2.7900434 -3.1065552 -2.338223
-1.4348836 -2.9013197 -2.370204
0.50951672 -2.7171412 -2.4073529
1.3744245 -2.9231737 -2.4168072
1.8529739 -2.6416531 -2.434979
1.9762592 -2.8391342 -2.4317274
2.5205321 -2.7858539 -2.4417884
2.972914 -2.7073374 -2.4531381
3.2723389 -2.7763615 -2.4544618
3.6974518 -2.7324743 -2.4650114
4.1254239 -2.7061117 -2.4723523
4.5490808 -2.6789639 -2.4806242
4.8712401 -2.7240894 -2.4838405
5.2443624 -2.7433648 -2.485934
5.6575403 -2.6402936 -2.4998975
6.1682005 -2.7008948 -2.5112216
6.4320006 -2.6900935 -2.5118909
6.9113693 -2.6046793 -2.5243344
7.3249373 -2.6918294 -2.5273261
7.697638 -2.6448553 -2.5365944
8.0157223 -2.5774009 -2.5422649
8.4195042 -2.6027915 -2.5510168
11.27107 -2.4866807 -2.602427
11.986502 -2.5183554 -2.612757
12.885329 -2.4846694 -2.6309552
13.979708 -2.4683075 -2.6501184
15.387037 -2.4299257 -2.674845
-1.5990648 -2.4220243 -2.382112
0.35139322 -2.3652205 -2.4181519
1.0324011 -2.2473154 -2.4309795
1.7003775 -2.3507123 -2.4394011
2.510004 -2.3878682 -2.446579
2.9548938 -2.3814893 -2.4595218
3.362458 -2.3682795 -2.4691966
3.7482471 -2.3518519 -2.4738209
4.1199012 -2.3466485 -2.4821463
4.4844913 -2.3368249 -2.4895959
4.8468709 -2.3149865 -2.4973078
5.4365053 -2.3716166 -2.504132
5.615726 -2.3277555 -2.5096574
5.9524231 -2.2957072 -2.5148969
6.4687347 -2.2951186 -2.5241799
7.0042648 -2.2654676 -2.5344543
7.269887 -2.2501309 -2.5389135
7.6864347 -2.2426934 -2.5461125
8.0734329 -2.2229187 -2.5532711
8.3752937 -2.2767231 -2.5581064
9.0496197 -2.1213856 -2.577059
9.1884279 -2.1944587 -2.5758569
11.408438 -2.17153 -2.6134522
11.483925 -1.9702952 -2.6196959
12.138027 -2.1129379 -2.625644
13.006416 -2.1006267 -2.642195
13.077511 -1.9058673 -2.6541913
14.089855 -2.0589685 -2.6624784
15.427479 -2.2005363 -2.6779811
15.496616 -1.992826 -2.6913774
-1.6839719 -2.1015708 -2.3881402
0.22244692 -2.0037122 -2.4255807
0.29560804 -2.1923709 -2.4179528
0.94754839 -2.0307398 -2.4358292
1.5418267 -2.0172057 -2.4474452
2.0246487 -1.9306366 -2.4564381
2.4851325 -1.9409862 -2.4639959
2.9578619 -2.0662265 -2.4697425
3.2812164 -1.9817336 -2.4768386
3.70806 -1.8853297 -2.4883389
4.0596538 -1.937165 -2.491791
4.4773941 -1.9118073 -2.5008345
4.7044001 -1.9730103 -2.5031774
5.4304161 -1.8974013 -2.5192878
5.6573482 -1.8925624 -2.5210013
6.0260649 -1.886867 -2.5287814
6.5447206 -1.8659751 -2.5380344
6.8960557 -1.8467255 -2.5429978
7.2632556 -1.8504429 -2.5504372
7.6928582 -1.8709686 -2.5582457
8.0439253 -1.8095672 -2.5657988
8.3066273 -1.8237467 -2.5694067
10.516329 -1.6082611 -2.6121645
10.993033 -1.687381 -2.6201212
11.563701 -1.7341418 -2.6287673
12.230728 -1.8397245 -2.6368804
12.29092 -1.6367645 -2.6455805
13.118561 -1.680177 -2.656539
14.184649 -1.6586642 -2.6769676
15.55971 -1.6051126 -2.7013485
-1.7520175 -1.8477638 -2.3960054
0.12520266 -1.647747 -2.4317896
0.81457806 -1.630152 -2.4452713
1.3909216 -1.6097562 -2.4569292
1.651094 -1.620075 -2.4581902
1.9025679 -1.6308789 -2.4638779
2.480551 -1.4992158 -2.4777722
2.8554678 -1.5290811 -2.4836841
3.2001033 -1.5537066 -2.487324
3.6612635 -1.5979047 -2.4951186
4.0397882 -1.5499721 -2.5034325
4.4147687 -1.5591681 -2.5099282
4.6981759 -1.4733536 -2.5162377
5.6563072 -1.4996772 -2.5321515
6.0502338 -1.525249 -2.5390835
6.4716005 -1.5069304 -2.5460753
6.8502898 -1.4631758 -2.5544326
7.2674866 -1.4651105 -2.5613387
7.6467042 -1.4347308 -2.5692737
8.0372143 -1.519562 -2.57357
9.8132286 -1.3128972 -2.6105592
10.013031 -1.275332 -2.6152287
10.595516 -1.3687191 -2.6217849
10.846531 -1.3485675 -2.6264961
11.097017 -1.3227601 -2.6308644
11.672411 -1.3273034 -2.6420915
12.36157 -1.3071995 -2.6547363
13.199728 -1.2748995 -2.6693606
14.229969 -1.3376083 -2.683362
14.26565 -1.2066078 -2.692595
15.611412 -1.201591 -2.7123525
-1.8746734 -1.132602 -2.412981
0.042610645 -1.2957342 -2.4412954
0.72798109 -1.2745261 -2.4524157
1.3004618 -1.2614501 -2.4622848
1.7817636 -1.2533166 -2.4741893
2.1997204 -1.2101946 -2.4800177
2.4118416 -1.2810934 -2.4786925
2.9044986 -1.2183495 -2.494194
3.201046 -1.1995602 -2.497818
3.6334102 -1.2815435 -2.5022044
4.1216965 -1.3034451 -2.5114758
4.4311266 -1.2826524 -2.5190351
4.6610551 -1.303576 -2.520545
5.5275941 -1.2955136 -2.5398409
6.9971328 -1.2278786 -2.5642939
7.2930865 -1.1539171 -2.5700371
7.55581 -1.1863785 -2.5760458
8.2233248 -0.82186872 -2.6006129
10.073513 -1.055609 -2.6216962
10.28277 -0.94460237 -2.6288793
10.69756 -0.95346683 -2.6359761
11.183123 -0.9375807 -2.6453199
11.751007 -0.92228299 -2.6556158
12.423643 -0.90793276 -2.6654871
13.258249 -0.87666512 -2.6823685
14.29714 -0.8436988 -2.7001688
15.656773 -0.81173939 -2.7260327
-1.8990493 -0.89612573 -2.418551
-0.87504005 -0.75452429 -2.4422505
-0.030006409 -0.85314786 -2.4529114
0.62165308 -0.68537307 -2.4708576
0.64879942 -0.85323375 -2.4643183
1.2107348 -0.81629384 -2.4744997
1.6883068 -0.80982 -2.4841635
2.1011152 -0.79490131 -2.4917684
2.4635539 -0.78507292 -2.497992
2.783782 -0.77925897 -2.5043449
3.0706906 -0.76584876 -2.5088103
7.6663313 -0.54251748 -2.5943067
8.0971775 -0.65800971 -2.5980868
8.2750912 -0.64495254 -2.603549
9.9852371 -0.57064652 -2.6346493
10.345383 -0.5596239 -2.6408081
10.757147 -0.55106765 -2.6481688
11.234991 -0.53843719 -2.6572359
11.796964 -0.52081299 -2.6677234
12.467782 -0.50633281 -2.6791527
13.289286 -0.47527981 -2.6933603
14.327061 -0.44593436 -2.712662
15.666737 -0.41955966 -2.7341521
-1.9264092 -0.547126 -2.4276943
-0.88965845 -0.52019292 -2.4474411
-0.067291737 -0.48840189 -2.4634271
0.60575628 -0.46537116 -2.475538
0.62481737 -0.56372899 -2.4677482
1.16889 -0.44651055 -2.4844761
1.64364 -0.43291095 -2.4935234
2.0535874 -0.42045653 -2.5009813
2.4122849 -0.40849009 -2.5071111
2.8658683 -0.37043151 -2.5172698
3.0269923 -0.49878377 -2.5118504
7.6580338 -0.2194061 -2.6037824
8.0237408 -0.16097789 -2.6114836
9.7006321 -0.15073854 -2.6409805
10.013028 -0.16882414 -2.6445363
10.373112 -0.15831874 -2.6530674
10.780321 -0.15202299 -2.6596341
11.255234 -0.13645038 -2.6688519
11.806602 -0.18943921 -2.6740198
11.820232 -0.0044052154 -2.685205
12.479515 -0.10229865 -2.6897461
13.306043 -0.072833091 -2.7070668
14.342421 -0.047282256 -2.7264562
15.673279 -0.012753278 -2.7459984
-1.9398904 -0.097153999 -2.4400022
-0.90784502 -0.04645139 -2.4619312
-0.083446503 -0.033996701 -2.4769449
0.59010029 -0.032973602 -2.4883454
0.61035872 0.020584002 -2.4813871
1.1561646 -0.018952765 -2.4958675
1.6326284 -0.010673493 -2.5036891
2.0415568 0.0071763247 -2.5118356
2.4001839 0.011596404 -2.5176029
2.8551974 0.011646561 -2.5268464
3.0046146 0.214921 -2.5372739
7.6463642 0.14388652 -2.612118
8.0157032 0.10687402 -2.6185899
9.6914234 0.19194072 -2.6510179
10.002975 0.22779092 -2.6565137
10.359585 0.23747341 -2.6627717
10.766378 0.25427306 -2.6696796
11.243452 0.26574308 -2.6799479
11.788404 0.33709264 -2.6870737
11.818117 0.16688782 -2.6912999
12.466476 0.30117613 -2.7003863
13.291653 0.31846309 -2.7168028
14.33112 0.35188919 -2.7376263
15.656984 0.39300776 -2.7559938
-1.9338565 0.27792287 -2.4514313
-0.89497709 0.20849222 -2.4667592
-0.067409992 0.34108433 -2.4871883
0.59516144 0.21897662 -2.4965205
0.61327648 0.39564225 -2.4995005
1.1753812 0.37464026 -2.5080371
1.6541982 0.39505652 -2.5172729
2.0670743 0.4036451 -2.5247328
2.4321973 0.41414094 -2.5292318
2.7491031 0.42683807 -2.5377476
3.0356126 0.42981219 -2.5424352
7.3582797 0.70635539 -2.621742
7.6632895 0.37629694 -2.6141424
8.0341883 0.4338381 -2.6287794
8.271863 0.50783783 -2.6372104
9.9498711 0.62711006 -2.6674242
10.309048 0.63638663 -2.6729395
10.721777 0.6514039 -2.6812353
11.198647 0.66579312 -2.6899083
11.756632 0.6866979 -2.6990674
11.795834 0.5194149 -2.7027459
12.434647 0.70414597 -2.7135668
13.256495 0.71969658 -2.7272158
14.291861 0.74907583 -2.745657
15.63031 0.79886824 -2.7676742
-1.9064679 0.68965334 -2.4638774
-0.019443035 0.74350667 -2.4962299
0.65709972 0.76708227 -2.5109575
1.227519 0.78219473 -2.521107
1.7169819 0.79751641 -2.5282252
2.1307645 0.7949549 -2.5373347
2.3461673 0.90755451 -2.5409417
2.8348336 0.83061862 -2.5491717
3.2475896 0.81599587 -2.5617673
3.5596094 0.9453038 -2.5634439
4.0279193 0.97089881 -2.5737667
4.346673 0.98355943 -2.5770917
4.7943854 0.94496822 -2.5870175
5.1060081 0.96887785 -2.5912049
5.4203105 1.0707707 -2.6028519
6.9312439 1.1130259 -2.6299212
7.2551231 1.0332725 -2.6327152
7.5629444 1.0225911 -2.637171
7.8214855 1.0615263 -2.6436923
10.014396 1.1017249 -2.6811416
10.224332 1.0231481 -2.6834829
10.637962 1.0493605 -2.6906369
11.122866 1.0610147 -2.6995616
11.693987 1.0786462 -2.7116075
12.368746 1.102999 -2.7227292
13.201131 1.1185627 -2.7380214
14.243917 1.1451805 -2.7568324
15.601662 1.1901371 -2.7824421
-1.8665318 1.0375962 -2.4743953
0.031476021 1.0867794 -2.5081649
0.72021961 1.1058931 -2.5209434
1.29984 1.1236267 -2.5310688
1.7664828 1.0311053 -2.5361459
1.8036823 1.1665876 -2.5402138
2.3919895 1.0924535 -2.5500238
2.7467191 1.0974009 -2.5567114
3.2857046 1.2528951 -2.5672574
3.6448183 1.1566646 -2.5737932
3.9303794 1.2204885 -2.5792124
4.3791418 1.2000771 -2.58757
4.7339768 1.2383602 -2.5942895
5.2539186 1.2856536 -2.6033051
5.5691013 1.3067338 -2.6109328
5.9524255 1.353972 -2.6180832
6.4602056 1.3572314 -2.6278133
6.7763572 1.3378272 -2.6324139
7.187758 1.3651278 -2.6407518
7.5660353 1.3575644 -2.6476028
7.9906659 1.4175668 -2.6562345
8.2152033 1.4414146 -2.6605482
10.161753 1.2445476 -2.6906021
10.549891 1.3425422 -2.6951122
10.577761 1.2838597 -2.6986828
11.029892 1.4047148 -2.707284
11.591232 1.4693854 -2.7186031
12.279491 1.4971619 -2.7322338
13.122365 1.5134735 -2.7480655
14.131939 1.6846967 -2.7666762
14.18634 1.4939661 -2.7666621
15.536083 1.5773196 -2.7909935
-1.7772746 1.5551624 -2.4903758
0.13794041 1.5371335 -2.5209527
0.1732254 1.6773868 -2.5269766
0.86015272 1.6300452 -2.5382135
1.4257927 1.5633824 -2.5468647
2.0182595 1.7681212 -2.561677
2.4353046 1.6892455 -2.5653136
2.8312171 1.6909463 -2.5745654
3.2012808 1.7029335 -2.5804582
3.6496913 1.6433163 -2.5844314
3.9799681 1.6873164 -2.5932958
4.3292603 1.74805 -2.5996959
4.7613993 1.7437649 -2.6093125
5.2161236 1.7281106 -2.6163619
5.5537386 1.7021892 -2.6213999
5.8486814 1.7036502 -2.6253204
6.4300728 1.8025036 -2.6385324
6.8950162 1.7754755 -2.6462123
7.1576514 1.7517841 -2.6509461
7.5827942 1.797395 -2.6593132
7.941102 1.7542498 -2.6651886
8.2761707 1.8742118 -2.6744013
9.0793152 1.9081242 -2.6871786
10.822495 1.9631557 -2.7198687
11.462084 1.8702776 -2.7289336
12.129965 1.9903796 -2.7434583
12.189341 1.805053 -2.7384703
12.946209 2.096633 -2.7560339
13.021097 1.9033294 -2.7574241
14.078495 1.9512153 -2.7766805
15.456312 1.9764209 -2.8009188
-1.7020216 1.8971844 -2.5022335
0.23663664 1.8899148 -2.5351927
0.92267275 1.7817042 -2.5384607
1.0544505 2.1550283 -2.5573206
1.6289449 2.0582318 -2.5632007
2.0869312 1.9238288 -2.5692749
2.3607514 1.9951932 -2.5723321
2.7790117 1.964782 -2.5815074
3.1878142 1.9776416 -2.5884848
3.5817904 2.0085511 -2.5961699
3.9649432 2.0422022 -2.6043544
4.3439369 2.0683596 -2.610903
4.7352777 2.0902133 -2.6182511
5.2685294 2.1481466 -2.6276348
5.4778552 2.1308851 -2.6331406
5.9597712 2.13186 -2.6385272
6.2642007 2.1531456 -2.6471865
6.8324251 2.1620572 -2.6572785
7.1447611 2.1501546 -2.6624069
7.5565205 2.1698856 -2.6704988
7.9435086 2.1716514 -2.6761601
8.3048162 2.1846354 -2.683326
10.769663 2.092258 -2.7254694
11.293427 2.2750163 -2.7369852
11.372774 2.1217923 -2.738471
12.018026 2.2817996 -2.7494931
12.879596 2.3265896 -2.7656703
12.961016 2.1355972 -2.7666256
13.966581 2.3472922 -2.7863016
15.289541 2.5634534 -2.8103051
15.368484 2.3590872 -2.8116429
-1.6145687 2.2233791 -2.5131657
0.4295454 2.4256597 -2.5575674
1.1326699 2.3182702 -2.5619209
1.7218461 2.2458594 -2.5695474
1.7996359 2.3888412 -2.5747743
2.3302665 2.3574841 -2.5847118
2.8279946 2.3620112 -2.5931132
3.0959201 2.4196301 -2.5992851
3.5223897 2.4001467 -2.6066244
3.9371855 2.3915334 -2.6135738
4.3535571 2.3894396 -2.6208911
4.7922082 2.3874784 -2.6279738
5.2328858 2.466223 -2.6376095
5.4029684 2.4193168 -2.6402574
6.0165067 2.5361671 -2.6525087
6.31142 2.5394814 -2.6573644
6.7406526 2.4876711 -2.6644309
7.1762404 2.5924563 -2.6741948
7.5479622 2.5638499 -2.6785903
7.8711624 2.5185957 -2.6849401
8.2975245 2.5419827 -2.6926813
8.704607 2.5849836 -2.7011893
9.2342472 2.7760842 -2.7126417
9.762579 2.807941 -2.7288449
10.34736 2.8140693 -2.737623
11.059391 2.7249706 -2.7455771
11.837999 2.6862535 -2.7582684
12.733259 2.7017162 -2.7742245
13.829051 2.7484632 -2.7951367
15.233248 2.789079 -2.8190255
-2.8453488 2.798146 -2.5050943
-0.25306368 2.9118891 -2.5580547
0.67181444 2.8982394 -2.5705502
1.4602423 2.9140043 -2.5840151
2.1103582 2.8893392 -2.597995
2.1661015 2.9448602 -2.5947204
2.7762477 2.9529428 -2.6088519
3.3115294 2.9238529 -2.6185384
3.3872108 2.9928553 -2.6210203
3.9456284 2.9890628 -2.6303241
4.4773655 2.9633031 -2.6413686
4.5544086 3.0015609 -2.6411049
5.664773 2.9607062 -2.6602437
5.8557696 2.9857595 -2.6630402
6.3978395 2.9993639 -2.6726363
6.7207651 2.9623055 -2.6776531
7.0666127 2.8847764 -2.6820138
7.5674267 2.9861455 -2.6934998
7.9254618 2.9614639 -2.6986442
8.2657738 2.9378607 -2.7043777
8.7349615 3.0068777 -2.7146564
9.0732603 2.9457624 -2.7191494
9.5599489 3.0319626 -2.7294855
9.8995104 3.0062625 -2.7342043
10.221333 2.9811392 -2.7390957
10.81939 3.1021965 -2.7516985
10.953827 2.9023879 -2.7490616
11.621677 3.0833881 -2.7645929
11.741714 2.8966134 -2.766264
12.484917 3.209981 -2.7816162
12.587543 3.018064 -2.7798748
13.659532 3.1642475 -2.8033121
13.746521 2.9706924 -2.800756
15.107216 3.1761453 -2.8293393
-2.8008761 2.9830856 -2.5151656
-1.2341752 3.2284064 -2.5450897
-0.13362741 3.1330347 -2.5629838
0.811059 3.1407225 -2.5795577
0.93720007 3.3460727 -2.5878234
1.6070719 3.1368937 -2.5936885
1.755909 3.3374102 -2.6009362
2.3514419 3.1832383 -2.6073031
2.7050695 3.2279222 -2.6157043
3.0347452 3.2207611 -2.6207197
3.5773494 3.1544244 -2.6281881
3.9059649 3.1863132 -2.638376
4.178544 3.1457272 -2.6374447
5.2847066 3.2953608 -2.6639063
5.5100455 3.3450806 -2.6679239
5.9288435 3.2630761 -2.6729903
6.2909856 3.2729681 -2.6791451
6.7151165 3.3742118 -2.6871519
7.1282425 3.4134381 -2.6714709
7.4661016 3.344491 -2.6987996
7.9097328 3.3256741 -2.707742
8.2507944 3.3433843 -2.7138965
8.6443958 3.3003049 -2.7211442
9.1208382 3.4455402 -2.7331026
9.510726 3.4192438 -2.7390168
9.8713379 3.3950503 -2.7459002
10.455009 3.5812042 -2.7605093
10.61253 3.3876324 -2.7574291
11.278441 3.6177599 -2.7754204
11.416313 3.4203765 -2.7724593
12.336581 3.5009773 -2.7916334
13.483822 3.5362751 -2.8101926
14.872484 3.7133682 -2.8355911
14.971857 3.531841 -2.8377252
-1.1998243 3.3499286 -2.5548313
-0.020860195 3.3572216 -2.572679
0.95734167 3.4019513 -2.5951996
1.8020096 3.4105561 -2.6075807
2.5837603 3.4327793 -2.6152329
5.2757998 3.5279624 -2.6116998
5.3830528 3.5287559 -2.5974963
6.9543333 3.5505302 -2.628679
7.9313126 3.7119746 -2.7194474
8.2816381 3.768707 -2.7280295
8.7028685 3.7534235 -2.7347527
9.0766373 3.7845085 -2.7422988
9.4715252 3.7726626 -2.7493572
10.054716 3.9956543 -2.7638025
10.251075 3.8027484 -2.763001
11.096718 3.8545702 -2.7794311
12.025461 3.9739599 -2.7965951
12.158436 3.7877975 -2.795846
13.223267 4.0190711 -2.8190913
13.338318 3.8261676 -2.8171926
14.7763 3.9674845 -2.8459637
7.9907904 4.1315374 -2.7315426
8.2039032 4.0369077 -2.7338765
8.7291946 4.2920012 -2.7496269
9.0375404 4.0975094 -2.7487059
9.6218815 4.362556 -2.7659025
9.8570461 4.1746402 -2.766331
10.726687 4.2727613 -2.7842543
10.921955 4.0727572 -2.7846813
11.654568 4.457233 -2.8029699
11.821967 4.2566228 -2.8023984
13.040569 4.316546 -2.8244669
14.575138 4.3545609 -2.8516679
8.2748718 4.5246711 -2.7484365
8.5155849 4.4114542 -2.7499306
9.118989 4.7083764 -2.7675712
9.4142418 4.5157413 -2.7672536
10.299746 4.6760578 -2.788089
10.520628 4.4753199 -2.785265
11.468082 4.6845403 -2.8095527
12.761204 4.729795 -2.8324101
12.902437 4.5393362 -2.8306878
14.350689 4.7618871 -2.8602653
14.480436 4.5679054 -2.8608575
8.3788691 5.0931129 -2.7678621
8.6753511 4.9548631 -2.7683077
8.9171467 4.8232479 -2.765991
9.6064167 5.1951246 -2.7902956
9.8624172 5.0235634 -2.7914112
10.087952 4.858376 -2.7913666
11.076303 5.0781288 -2.8122532
11.275229 4.8768497 -2.808027
12.379984 5.2040596 -2.8377345
12.545113 5.0070195 -2.8355539
14.013131 5.2879963 -2.8688402
14.141613 5.0941267 -2.8654416
9.0808573 5.4981503 -2.7897031
9.4089355 5.3151917 -2.7897651
10.430664 5.6298809 -2.8190308
10.659418 5.444828 -2.8161006
10.873583 5.2596722 -2.8125658
11.992234 5.6305962 -2.8439021
12.170687 5.4387884 -2.8407643
13.838503 5.5385489 -2.8739154
8.6893415 5.6838379 -2.7881868
8.8752489 5.6038723 -2.7902551
9.9209366 5.9650049 -2.8169692
10.22455 5.772522 -2.8186207
11.587873 6.0202785 -2.8494534
11.799877 5.8265228 -2.8479671
13.51013 5.962369 -2.8805702
13.664129 5.7838292 -2.8800988
9.1611023 6.3670468 -2.813668
9.4292183 6.2459502 -2.8180697
9.7156916 6.0887399 -2.8175085
11.139898 6.379241 -2.8495922
11.378944 6.1987114 -2.8511009
13.123465 6.3998909 -2.8857493
13.30055 6.2069826 -2.883635
8.9653959 6.4632111 -2.8163011
10.630943 6.7396836 -2.851486
10.942922 6.5326734 -2.8524408
12.707847 6.8068924 -2.8880229
12.924632 6.6124415 -2.889488
9.8956528 7.1676831 -2.8513942
10.215004 6.9921927 -2.8513002
10.430815 6.8668604 -2.8515987
12.287457 7.1874604 -2.8927321
12.509824 6.99968 -2.8921449
9.4122829 7.3954201 -2.8498125
9.7010918 7.2687469 -2.8522327
11.814951 7.5507684 -2.893178
12.076329 7.3659601 -2.895427
11.119534 8.0280676 -2.8968976
11.378101 7.8651066 -2.897023
11.618414 7.7010322 -2.8958521
10.576729 8.3396816 -2.8978324
10.917061 8.1429882 -2.8956823
9.83708 8.6824245 -2.8938432
10.153852 8.5349159 -2.8931768
10.367271 8.4417171 -2.895968
7.3274422 -8.1240158 -2.0197163
7.3175159 -7.7589831 -2.1019335
7.31388 -7.4629641 -2.1899819
7.3089705 -7.0451827 -2.0765097
7.3002949 -6.6299186 -2.1096456
7.2899656 -6.187429 -2.1177139
7.2909985 -5.8571796 -2.1475194
14.135649 -5.6010661 -2.2007771
7.276402 -5.3567667 -2.2271059
14.130884 -5.2424555 -2.1660705
7.2761431 -5.063911 -2.1164496
14.124325 -5.0140376 -2.1441405
7.2683597 -4.6354904 -2.1779399
7.2610359 -4.226264 -2.2165489
7.3712568 -3.9489393 -2.2093782
7.7236147 -3.9229529 -2.1585786
8.1211958 -3.9080648 -2.2414801
8.5307035 -3.8904948 -2.2304075
8.9250393 -3.8722804 -2.2219803
9.2148724 -3.8632951 -2.3044438
12.454128 -3.751368 -2.3166504
12.98262 -3.7066 -2.2928908
13.234821 -3.6932001 -2.3589907
13.728849 -3.6725886 -2.3116028
14.071875 -3.6643441 -2.3983052
7.3839769 -0.27519664 -2.2282758
7.592051 -0.2731488 -2.314898
7.90979 -0.26329386 -2.3623872
7.3607283 0.21066198 -2.227119
7.5749402 0.20984691 -2.3228238
7.8975554 0.21638507 -2.3781159
5.8864264 3.5141788 -2.4417567
6.3785982 3.5276861 -2.4535196
6.721736 3.5348516 -2.4848146
7.0683823 3.5388415 -2.4313726
7.4763894 3.542625 -2.4037879
4.2436514 3.5335188 -2.184886
5.2547836 3.5340393 -2.2067549
5.4959407 3.5342569 -2.3826632
5.9070764 3.5331144 -2.4545474
6.2743654 3.5379698 -2.4562526
6.6686358 3.5445764 -2.4858332
6.9796996 3.5562956 -2.3253412
7.3322878 -8.1044455 -1.6724169
7.3281355 -7.8016858 -1.6154848
7.3233733 -7.3749523 -1.6915867
7.3147182 -7.0384469 -1.7706816
7.3073773 -6.5815687 -1.6659766
7.29877 -6.242527 -1.7236156
14.153769 -5.8366265 -1.8178616
7.2940435 -5.7393765 -1.8487662
14.142622 -5.6261368 -1.8003786
7.2850189 -5.3862929 -1.7471893
14.138309 -5.2316241 -1.7716256
7.278656 -4.952455 -1.8438903
14.148442 -5.0139203 -1.7585984
7.2728848 -4.5708952 -1.8216674
7.2675428 -4.2110333 -1.7955831
7.4012203 -3.9337711 -1.8070178
7.7342939 -3.9118409 -1.7538952
8.1291504 -3.8973222 -1.8222957
8.5084829 -3.8829131 -1.8994275
8.9422626 -3.8608496 -1.7830321
9.2228565 -3.8501625 -1.8475606
12.547867 -3.7239385 -1.8652334
12.888449 -3.702363 -1.9413542
13.318844 -3.6768515 -1.8695699
13.70917 -3.6643057 -1.952282
14.045893 -3.6532307 -2.0243258
6.9834504 0.4859052 -1.7915514
6.0550938 3.5335331 -1.9675381
6.3485112 3.5378623 -2.0681136
6.7368484 3.5474818 -2.0065145
7.0705457 3.5497637 -2.044091
7.4838486 3.5551097 -2.0146015
-2.3970075 3.5086889 -1.7019299
-2.0379491 3.5043604 -1.8345562
-1.6726966 3.5020001 -1.9578598
-1.2763033 3.5073366 -1.8868932
-0.87624979 3.5088565 -1.8155702
-0.49464941 3.5156314 -1.7490613
-0.1546731 3.5156336 -1.8436099
0.32497597 3.5174222 -1.9009879
0.73341084 3.5201995 -1.818297
1.1470156 3.521754 -1.8701471
1.5175772 3.5243633 -1.9221803
1.9176788 3.5259795 -1.834111
2.2795699 3.5263135 -1.8752857
2.71315 3.5315125 -1.8946885
3.1564441 3.5337429 -1.9061302
3.5238359 3.5351615 -1.9305832
3.9250247 3.535779 -1.949185
4.3219748 3.5384374 -1.9708365
4.7136402 3.5387733 -1.9988012
5.1173563 3.543288 -1.9434872
5.5364542 3.5433154 -1.9963771
5.8739867 3.5479312 -1.9811046
6.348258 3.5537522 -1.9856213
6.6711497 3.5593209 -2.0071499
6.9140139 3.5554211 -2.2158313
7.3228731 -7.0270767 -1.3234887
7.3114314 -6.5678005 -1.383921
7.3022771 -6.1130095 -1.4275628
14.148046 -5.8907318 -1.4160094
7.3034925 -5.8030176 -1.3648493
14.153635 -5.6360083 -1.4037226
7.2947235 -5.4459443 -1.2892878
14.142146 -5.2185941 -1.3821452
7.2874846 -5.0015574 -1.4152174
14.135159 -4.9903131 -1.370878
7.2802076 -4.5792546 -1.4099776
7.2737246 -4.1975641 -1.4035741
7.3802366 -3.9195845 -1.425871
7.7410169 -3.9007585 -1.3747964
8.1390944 -3.884671 -1.4299511
8.5386543 -3.8694558 -1.4958221
8.8911314 -3.8529835 -1.4577318
9.2308769 -3.8384299 -1.4175249
12.435131 -3.7360234 -1.5374522
12.928125 -3.6858582 -1.4689533
13.3239 -3.667038 -1.5370524
13.717066 -3.6553507 -1.605915
14.05158 -3.642741 -1.6649437
4.9059749 -0.55972767 -1.4369493
5.2120676 -0.55512547 -1.3874435
6.9314766 -0.58090192 -1.5264745
4.879704 -0.3309229 -1.3759732
5.2547736 -0.33777004 -1.4093267
5.468009 -0.19308084 -1.3512627
6.9853306 -0.27385855 -1.3999324
4.7589998 0.13539685 -1.378351
5.3786669 0.06733337 -1.3779557
5.4715185 0.20291093 -1.4000192
6.9800072 0.1297558 -1.3743858
4.8439336 0.3685658 -1.4020871
5.2153401 0.38928103 -1.4251131
5.4928193 0.38846454 -1.4897385
6.9415388 0.47513008 -1.5024555
5.978241 3.5404449 -1.6231937
6.3824735 3.5514591 -1.6331395
6.6884775 3.5555444 -1.6508553
7.1282864 3.56299 -1.6065023
7.486907 3.5645456 -1.6519389
-2.4252572 3.5182488 -1.3218985
-2.0139241 3.5153046 -1.4612364
-1.673316 3.5153804 -1.5978793
-1.2819715 3.5227396 -1.5427444
-0.8748045 3.5204258 -1.4849735
-0.48916435 3.5247114 -1.4316415
-0.036189079 3.5250707 -1.519383
0.3263073 3.5279369 -1.4647486
0.71866226 3.528564 -1.5434182
1.1975837 3.5318835 -1.595691
1.5231714 3.5361443 -1.5405208
1.9246888 3.5357471 -1.4718301
2.3809986 3.5380964 -1.623742
2.7206192 3.5393369 -1.5620733
3.1269341 3.5433998 -1.4922438
3.4833508 3.545819 -1.5336268
3.9290998 3.5452478 -1.5586658
4.3667355 3.5483949 -1.5868757
4.6788926 3.5509405 -1.5464261
5.1237497 3.5531087 -1.5872698
5.5270123 3.5562706 -1.5589724
5.948616 3.5545528 -1.6296707
6.276195 3.5612676 -1.6342859
6.6492414 3.5696528 -1.5678724
7.0407858 3.5791781 -1.6036685
7.3293171 -7.0059361 -0.8844651
7.3188648 -6.5567079 -0.97228158
7.3120799 -6.1583319 -0.92205465
14.166916 -5.9071336 -1.0175186
7.3130484 -5.8435369 -0.88155001
14.15897 -5.6052542 -1.0085011
7.2973261 -5.3435006 -1.0423907
14.153403 -5.2105856 -0.99804014
7.2952404 -4.9897561 -0.98458558
14.145471 -4.9818172 -0.99194086
7.2876134 -4.5585976 -1.0087982
7.2799144 -4.1852112 -1.031001
7.4039192 -3.9057159 -0.98506618
7.7439408 -3.8904841 -1.0147499
8.1428699 -3.8757453 -1.057711
8.5946016 -3.8545198 -1.0194933
8.8904467 -3.8432457 -1.0581715
9.2390566 -3.8278658 -1.0066177
12.477158 -3.7175286 -1.0948308
12.934996 -3.6776817 -1.1555958
13.332476 -3.6591969 -1.209872
13.813238 -3.6401377 -1.1039106
14.060081 -3.6273384 -1.1355435
5.1502748 -0.60193521 -1.0593963
6.3244348 -0.58192003 -0.99331456
6.7356124 -0.4244512 -0.96462566
5.3660264 -0.15515314 -1.1065681
5.4751916 -0.22921714 -1.1558565
6.8499188 -0.30486786 -1.0726309
7.0364804 -0.075171947 -1.3125426
5.3614635 0.11080909 -1.127667
5.4580069 0.22766243 -1.1299502
6.8492718 0.21266155 -1.0697711
7.0329032 0.032712631 -1.314411
5.1186972 0.39854059 -1.0661492
6.1776228 0.45577142 -0.99278688
6.3076949 0.46481723 -1.0145607
6.0066066 3.5536802 -1.2193576
6.394979 3.5617306 -1.2278905
6.7981753 3.5719206 -1.1706721
7.1348724 3.5765707 -1.1959312
7.496284 3.5787213 -1.2302279
-2.421701 3.5303273 -0.94136482
-2.0571828 3.530864 -0.91589767
-1.6637464 3.530417 -1.0650498
-1.3542695 3.5328805 -1.0366389
-0.86727524 3.5288985 -1.1577482
-0.46016979 3.534234 -1.1163405
-0.061089039 3.5373049 -1.0761839
0.40289116 3.5418653 -1.170017
0.72187567 3.5427842 -1.1349932
1.1344409 3.5446463 -1.0890677
1.4975734 3.5479448 -1.0492668
2.0203867 3.5440412 -1.2230886
2.331337 3.5480797 -1.1845641
2.7332785 3.551888 -1.1350253
3.1334701 3.5556006 -1.0890352
3.5050631 3.557075 -1.1436714
3.9336131 3.558831 -1.1890876
4.3338933 3.560848 -1.1481445
4.7514391 3.5619843 -1.1971356
5.1344337 3.5642416 -1.1710069
5.5203366 3.5681379 -1.153999
5.9194746 3.5679846 -1.2244586
6.3064694 3.5757582 -1.2300509
6.7238646 3.5835307 -1.1699194
7.0780888 3.5930369 -1.1966488
7.335279 -7.0031505 -0.59769881
7.3257508 -6.5433068 -0.56723857
7.3185444 -6.14569 -0.54098427
14.168274 -5.910593 -0.61883795
7.3163428 -5.7318487 -0.63103527
14.166022 -5.5943046 -0.61749685
7.3045025 -5.3490391 -0.59885192
14.16132 -5.2005434 -0.61622798
7.3019285 -4.9744787 -0.56716192
14.157677 -4.9746137 -0.61568201
7.2962346 -4.5827518 -0.53345656
7.2888598 -4.2263098 -0.59149164
7.4046421 -3.9006333 -0.64751911
7.8167634 -3.8776906 -0.58788073
8.1553774 -3.8624718 -0.61227727
8.5389957 -3.8476062 -0.6424886
8.9555712 -3.8279037 -0.58384639
9.2465029 -3.8171074 -0.60848939
12.347628 -3.6938221 -0.78621858
12.56823 -3.6932471 -0.65938866
12.942656 -3.664212 -0.6913932
13.339963 -3.6448364 -0.72479522
13.716516 -3.6308856 -0.75643009
14.072117 -3.6138005 -0.61303145
5.1805921 -0.58501399 -0.66498762
6.8522062 -0.313225 -0.88457608
5.1489639 0.40697229 -0.70763433
5.995791 3.5626175 -0.83855593
6.3984122 3.5729063 -0.84699464
6.7276139 3.5785122 -0.85916311
7.14254 3.5856419 -0.80424434
7.5027399 3.5870278 -0.82705188
-2.4099612 3.539005 -0.56301945
-2.0433917 3.5380335 -0.55097133
-1.6486468 3.5427363 -0.53842527
-1.2401795 3.54125 -0.69246
-0.85899496 3.5427065 -0.67404473
-0.46619701 3.548321 -0.65536094
-0.12759542 3.5529959 -0.63794112
0.34739542 3.5490007 -0.75590754
0.73197126 3.5522563 -0.73198718
1.1317463 3.5563264 -0.70786184
1.5958524 3.5573142 -0.79919922
1.9515076 3.5545223 -0.77411205
2.3493173 3.562129 -0.74737138
2.7522235 3.5626814 -0.72110426
3.1500006 3.5667372 -0.69764751
3.5730245 3.5668974 -0.76597863
3.9310215 3.5698278 -0.74534994
4.3437943 3.569705 -0.80786186
4.7446814 3.5735147 -0.78882146
5.1444244 3.5755343 -0.77510476
5.5864058 3.5736053 -0.84222639
5.9322453 3.5803227 -0.84204662
6.3177447 3.5846932 -0.84757507
6.6931062 3.5923648 -0.86051065
7.093462 3.6053386 -0.72773188
7.3431258 -6.9927487 -0.17057374
7.3339448 -6.5691686 -0.16722941
7.3265038 -6.1707444 -0.16468781
14.176933 -5.9195189 -0.22167954
7.3244863 -5.7667494 -0.16293696
14.170731 -5.5817003 -0.22816533
7.3122334 -5.3361125 -0.16014248
14.166245 -5.1885457 -0.23593757
7.3086996 -4.9604549 -0.1579379
14.15532 -4.9583302 -0.24030483
7.303256 -4.5733781 -0.15598923
7.2937565 -4.1386528 -0.23717144
7.4170642 -3.8877745 -0.23666465
7.7572956 -3.8712561 -0.24837992
8.1584969 -3.8508184 -0.17761964
8.558816 -3.8341777 -0.19140002
8.9593887 -3.8191714 -0.20615646
9.2546587 -3.8075473 -0.21753061
12.448132 -3.70438 -0.35912254
12.949463 -3.6504698 -0.23100224
13.351288 -3.632637 -0.24373406
13.73961 -3.6164238 -0.25608462
14.074244 -3.6021419 -0.26678169
5.2260113 -0.56178224 -0.37320304
5.1268187 -0.24671444 -0.37792844
5.1293879 0.15245421 -0.36072403
5.2123899 0.404419 -0.38846415
6.0550137 3.5775177 -0.39907104
6.3706594 3.5851808 -0.4051896
6.7583838 3.5914695 -0.41456878
7.1521988 3.5969117 -0.42611736
7.5027976 3.5969918 -0.43787283
-2.443336 3.5503328 -0.18666919
-2.0447021 3.5516281 -0.18844163
